24.7915 1.36968 0.28822 6
24.7197 1.45115 0.296664 6
24.9516 1.17083 0.195848 6
24.8446 1.252 0.20695 6
24.837 1.33678 0.211312 6
24.7334 1.41702 0.222109 6
24.7293 1.5016 0.226202 6
24.8894 1.21865 0.127975 6
24.9218 1.30531 0.129547 6
24.8582 1.38782 0.137862 6
24.7146 1.46596 0.151753 6
24.6443 1.65765 0.099591 6
24.5478 1.73636 0.110316 6
24.5361 1.71456 0.538974 6
24.4311 1.81314 0.122454 6
24.4751 1.79486 0.546098 6
24.3939 1.87343 0.554291 6
24.3562 1.95452 0.560095 6
24.6034 1.59965 0.456169 6
24.7442 1.71348 0.019716 6
24.5149 1.67885 0.465086 6
24.6515 1.7926 0.030434 6
24.9389 2.1685 -0.123043 6
24.4699 1.76015 0.471459 6
24.5784 1.87241 0.039633 6
24.4048 1.83985 0.47897 6
24.6096 1.56518 0.382094 6
24.577 1.64771 0.387873 6
24.597 1.75438 -0.038931 6
24.4923 1.7269 0.396793 6
24.5479 1.83565 -0.031407 6
24.4472 1.80805 0.403282 6
24.6378 1.9261 -0.034762 6
24.6717 2.0132 -0.033737 6
24.586 2.09158 -0.023415 6
24.6277 1.5311 0.306369 6
24.5591 1.63282 -0.114293 6
24.5872 1.61329 0.312744 6
24.4985 1.71347 -0.105671 6
24.5266 1.69405 0.320383 6
24.4416 1.79397 -0.097384 6
24.5095 1.77714 0.325226 6
24.6591 2.062 -0.104088 6
24.6052 1.57968 0.238296 6
24.5367 1.66013 0.246636 6
24.4799 1.74085 0.254166 6
24.7342 1.55175 0.154175 6
24.61 1.62962 0.166628 6
24.629 1.71521 0.169057 6
24.5282 1.79339 0.179804 6
24.4382 1.85047 0.616988 6
24.3727 1.92983 0.624148 6
24.3322 1.9739 0.136911 6
24.2824 2.05379 0.144127 6
24.2546 2.03068 0.569334 6
24.2959 2.13831 0.146778 6
24.1925 2.10922 0.576404 6
24.1222 2.18671 0.583889 6
24.1511 2.27209 0.586035 6
24.509 1.952 0.048518 6
24.3593 1.92049 0.485327 6
24.3558 2.02503 0.063644 6
24.2816 1.99854 0.493497 6
24.3297 2.10676 0.069218 6
24.2555 2.07998 0.498703 6
24.2171 2.16031 0.504587 6
24.2064 2.2427 0.508889 6
24.3939 1.88837 0.410245 6
24.3562 1.96947 0.416241 6
24.2585 2.04588 0.425817 6
24.3409 2.15686 -0.000769 6
24.1605 2.12163 0.435368 6
24.3907 2.47543 0.436368 6
24.3924 1.87463 -0.089752 6
24.3805 1.85277 0.337142 6
24.4066 1.95944 -0.087283 6
24.335 1.93332 0.343736 6
24.325 2.0162 0.348063 6
24.2192 2.09172 0.358405 6
24.2605 2.1783 0.359481 6
24.3332 2.26786 0.358588 6
24.3936 2.35691 0.358477 6
24.4069 1.82016 0.262744 6
24.3654 1.90115 0.269196 6
24.3038 1.98045 0.27696 6
24.163 2.15753 -0.12828 6
24.2594 2.14407 0.287214 6
24.3521 2.23517 0.284773 6
24.451 1.87247 0.18887 6
24.3776 1.95131 0.197644 6
24.28 2.0279 0.208049 6
24.2339 2.10784 0.21487 6
24.2263 2.16946 0.642913 6
24.1159 2.24359 0.652251 6
24.0995 2.28879 0.167996 6
24.0327 2.36585 0.176306 6
24.0564 2.3469 0.594781 6
24.2795 2.47134 0.162319 6
23.9614 2.42108 0.603506 6
23.9935 2.50665 0.605455 6
24.1721 2.17781 0.084577 6
24.1295 2.25743 0.09131 6
24.1582 2.343 0.092725 6
24.2112 2.32641 0.512297 6
24.0515 2.41655 0.104173 6
24.2914 2.41697 0.51146 6
24.2916 2.50069 0.515128 6
24.2797 2.58329 0.519474 6
24.2198 2.66105 0.526487 6
24.1594 2.2257 0.016879 6
24.2215 2.20969 0.435398 6
24.1206 2.30555 0.023411 6
24.2464 2.29515 0.437587 6
24.1293 2.38941 0.026261 6
24.3346 2.38643 0.436016 6
24.0344 2.46378 0.037075 6
24.3388 2.63855 0.446756 6
24.2311 2.71154 0.456736 6
24.1572 2.1911 -0.056424 6
24.1186 2.271 -0.049797 6
24.0638 2.34927 -0.041896 6
24.0604 2.4319 -0.038142 6
24.2112 2.42444 0.373501 6
24.1041 2.49782 0.38378 6
24.1438 2.58484 0.384918 6
24.3302 2.68703 0.376992 6
24.2333 2.84472 0.390183 6
24.1086 2.23619 -0.120233 6
24.0818 2.31691 -0.11451 6
24.1979 2.3058 0.298517 6
24.134 2.40462 -0.115386 6
24.0276 2.37395 0.313256 6
23.9717 2.47266 -0.098452 6
24.2332 2.81056 0.31779 6
24.2949 2.19616 0.214302 6
24.1846 2.27049 0.22549 6
24.0622 2.34303 0.237464 6
24.0921 2.4498 -0.183169 6
23.9939 2.39863 0.665824 6
23.9812 2.52231 -0.170214 6
23.9305 2.47536 0.672693 6
24.0328 2.61024 -0.171238 6
23.807 2.59204 0.202838 6
23.7867 2.56908 0.620041 6
23.775 2.67091 0.208569 6
23.7705 2.64947 0.624505 6
23.8498 2.76094 0.206756 6
23.7462 2.72895 0.629391 6
23.9724 2.49201 0.113536 6
23.8812 2.56578 0.123762 6
23.7778 2.63773 0.134842 6
23.7416 2.71605 0.140935 6
23.8656 2.7079 0.549864 6
23.6544 2.76765 0.565186 6
23.6177 2.84533 0.570769 6
23.971 2.54056 0.045425 6
23.9471 2.6209 0.050718 6
23.7602 2.68428 0.068468 6
23.7239 2.7625 0.074644 6
24.0039 2.77117 0.473668 6
23.9932 2.50849 -0.029301 6
23.9416 2.5862 -0.021741 6
23.8065 2.65508 -0.007554 6
23.6949 2.72556 0.004705 6
23.9366 2.44833 0.322768 6
23.9044 2.54883 -0.089453 6
23.8931 2.52668 0.329155 6
23.7694 2.61777 -0.074894 6
23.885 2.60833 0.333219 6
23.7016 2.69282 -0.065935 6
24.0434 2.70718 0.326497 6
23.7445 2.77939 -0.066131 6
24.015 2.42165 0.244252 6
23.9517 2.49845 0.252115 6
23.8762 2.57367 0.260777 6
23.7826 2.66753 -0.146427 6
23.8124 2.64961 0.268613 6
23.7266 2.74379 -0.138299 6
23.8158 2.73224 0.27187 6
23.7667 2.70599 0.691841 6
23.7416 2.82752 -0.13627 6
24.0292 2.83787 0.260942 6
23.7817 2.78974 0.694719 6
23.78 2.91409 -0.136251 6
23.6177 2.89963 0.229921 6
23.549 2.97334 0.238129 6
23.6674 2.96607 0.644262 6
23.5671 3.05709 0.240239 6
23.6459 3.04544 0.648945 6
23.6087 3.14393 0.240709 6
23.6915 3.13296 0.650137 6
23.7605 3.22385 0.650127 6
23.7183 3.30084 0.655864 6
23.8162 2.80616 0.138876 6
23.6883 2.87423 0.151662 6
23.5642 2.9419 0.164122 6
23.6759 2.93368 0.571089 6
23.6102 3.02898 0.164126 6
23.6426 3.01172 0.576466 6
23.7034 3.12223 0.160692 6
23.621 3.09099 0.581186 6
23.5871 3.16866 0.586559 6
23.6798 3.26242 0.585004 6
23.7785 2.85057 0.073862 6
23.55 2.98836 0.097969 6
23.6114 2.97451 0.507212 6
23.5681 3.07217 0.099917 6
23.5621 3.05037 0.51357 6
23.7086 3.17143 0.092594 6
23.6513 3.14309 0.511899 6
23.7457 2.81303 0.004036 6
23.7327 2.89374 0.008416 6
23.6408 2.86235 0.430132 6
23.6006 2.96058 0.022198 6
23.6633 2.94676 0.432243 6
23.599 3.04217 0.02563 6
23.6141 3.02287 0.438731 6
23.6209 3.12672 0.027199 6
23.6479 3.10886 0.44014 6
23.6701 3.21496 0.026609 6
23.7118 2.85791 -0.060112 6
23.6369 2.82855 0.35976 6
23.6235 2.92987 -0.049543 6
23.6238 2.90886 0.364067 6
23.6061 3.00967 -0.044835 6
23.6303 2.99142 0.367107 6
23.64 3.09566 -0.044332 6
23.6206 3.07215 0.371173 6
23.6418 3.17795 -0.041223 6
23.6779 3.16123 0.370948 6
23.6512 2.87847 0.289907 6
23.6321 2.97918 -0.120377 6
23.5943 2.95376 0.297164 6
23.6146 3.05902 -0.115637 6
23.5451 3.02964 0.303881 6
23.672 3.1481 -0.117268 6
23.5472 3.11156 0.307143 6
23.6169 3.09896 0.717273 6
23.7013 3.23409 -0.116526 6
23.5608 3.19502 0.309622 6
23.6385 3.18361 0.719799 6
23.6637 3.26896 0.722148 6
23.6831 3.31756 0.242272 6
23.783 3.41333 0.238709 6
23.8778 3.40454 0.651228 6
23.8115 3.50001 0.240106 6
23.9577 3.49853 0.650709 6
24.0174 3.59033 0.651238 6
24.0926 3.68488 0.650993 6
23.7012 3.2042 0.164204 6
23.671 3.2826 0.169733 6
23.7197 3.37135 0.169537 6
23.7484 3.35373 0.584786 6
23.8589 3.47289 0.162801 6
23.8957 3.4563 0.580302 6
23.8871 3.55995 0.164101 6
23.9912 3.55278 0.578668 6
23.6785 3.2499 0.098183 6
23.7519 3.23797 0.509582 6
23.6561 3.32924 0.103174 6
23.6622 3.30873 0.518246 6
23.7086 3.41862 0.102514 6
23.7582 3.40389 0.516214 6
23.812 3.51553 0.098024 6
23.8895 3.50466 0.512187 6
23.8835 3.60871 0.09595 6
23.9531 3.59689 0.512055 6
23.7685 3.20609 0.436274 6
23.6992 3.30102 0.0276 6
23.7066 3.28063 0.443506 6
23.7359 3.38836 0.027989 6
23.7394 3.3674 0.444978 6
23.8316 3.48414 0.023766 6
23.9024 3.47226 0.438596 6
23.9229 3.58008 0.019894 6
23.9583 3.56334 0.438707 6
23.7423 3.27305 -0.046162 6
23.6676 3.24213 0.375039 6
23.7474 3.3563 -0.043337 6
23.7362 3.33341 0.374108 6
23.7958 3.44555 -0.044028 6
23.8519 3.43163 0.370204 6
23.9158 3.52356 0.3696 6
23.766 3.32498 -0.11877 6
23.6216 3.28481 0.308952 6
23.8263 3.41582 -0.120648 6
23.7296 3.38142 0.305157 6
23.8665 3.5044 -0.120832 6
23.8134 3.47555 0.302984 6
23.9932 3.60562 -0.128292 6
23.8811 3.56809 0.301898 6
23.971 3.64259 0.72165 6
23.9977 3.69299 0.233994 6
24.0843 3.78964 0.231409 6
24.2504 3.79224 0.646574 6
24.0058 3.66029 0.158885 6
24.114 3.65391 0.575581 6
24.0649 3.75278 0.157973 6
24.1415 3.74205 0.577658 6
24.002 3.70934 0.090368 6
24.1231 3.70508 0.505881 6
24.0608 3.80199 0.089257 6
24.0833 3.78338 0.511665 6
24.077 3.66393 0.435052 6
24.0413 3.76462 0.017191 6
24.1354 3.86297 0.013132 6
24.1611 3.64184 0.357561 6
24.0729 3.73523 -0.056784 6
24.1491 3.72443 0.361778 6
24.1474 3.83059 -0.059571 6
24.0485 3.69743 -0.129736 6
23.972 3.66456 0.29928 6
24.1783 3.80083 -0.137431 6
24.11 3.76872 0.293582 6
24.2604 3.89797 -0.141111 6
24.4947 3.91389 0.637826 6
24.4337 4.01251 0.214236 6
24.5528 4.00858 0.638537 6
24.1947 3.85644 0.152004 6
24.2516 3.84287 0.575299 6
24.3594 3.96652 0.143553 6
24.4798 3.96268 0.566644 6
24.6758 4.07916 0.559768 6
24.1785 3.90414 0.083768 6
24.2643 3.89509 0.504923 6
24.2918 4.00655 0.078624 6
24.5276 4.02101 0.493575 6
24.2309 3.77062 0.429321 6
24.3132 3.86773 0.427901 6
24.2449 3.96446 0.007893 6
24.5096 3.98311 0.4197 6
24.6218 4.1093 -0.018026 6
24.9077 4.17145 -0.18875 6
24.67 4.09429 0.413691 6
24.3935 3.84532 0.349889 6
24.2689 3.93379 -0.06613 6
24.5032 3.94743 0.346501 6
24.6597 4.05778 0.340207 6
24.2278 3.8709 0.289242 6
24.5863 4.03386 -0.165159 6
24.3413 3.97333 0.285212 6
24.3684 3.95518 0.713528 6
36.8227 -0.089152 1.78915 7
36.7054 -0.433654 1.66954 7
36.4488 -0.804372 1.6534 7
36.3811 -0.927401 1.648 7
36.3757 -0.977695 1.53985 7
36.3389 -0.928973 1.11404 7
36.3566 -1.02193 1.00681 7
36.5372 -0.678314 0.696416 7
36.6626 -0.528646 1.0232 7
36.823 -0.279032 1.03138 7
36.8757 -0.077235 0.931679 7
36.8272 -0.23021 0.600545 7
36.8722 -0.058904 1.1446 7
36.8446 -0.152703 1.03683 7
36.7864 -0.202836 0.928003 7
36.8158 -0.254139 0.816339 7
36.8453 -0.127865 0.821449 7
36.8105 -0.179011 0.711472 7
36.8527 -0.134286 1.2488 7
36.6874 -0.435728 1.13047 7
36.7534 -0.310611 1.13507 7
36.839 -0.185292 1.13931 7
36.725 -0.403776 1.02768 7
36.6945 -0.453953 0.918507 7
36.7847 -0.329294 0.922112 7
36.6635 -0.504086 0.808841 7
36.7259 -0.37912 0.812974 7
36.6202 -0.554516 0.699682 7
36.6987 -0.430065 0.703115 7
36.7688 -0.304954 0.706836 7
36.7733 -0.355978 0.596444 7
36.3728 -0.897381 1.01229 7
36.4485 -0.774503 1.01638 7
36.5557 -0.651942 1.01976 7
36.3496 -0.947045 0.903965 7
36.4454 -0.82493 0.907306 7
36.5249 -0.701731 0.911106 7
36.6239 -0.578467 0.914423 7
36.3459 -0.997385 0.794518 7
36.386 -0.873591 0.799216 7
36.4656 -0.750678 0.802772 7
36.5608 -0.627618 0.805902 7
36.378 -0.924468 0.689741 7
36.4259 -0.800703 0.694091 7
36.47 -0.682372 1.12307 7
36.5769 -0.559378 1.12678 7
36.3947 -0.805589 1.11875 7
36.4436 -0.854741 1.54506 7
36.5298 -1.03375 1.42728 7
36.402 -0.903865 1.43461 7
36.3547 -0.932312 2.07115 7
36.3704 -0.807817 2.07698 7
36.4616 -0.685257 2.08332 7
36.3521 -0.953366 1.32698 7
36.4199 -0.830407 1.33181 7
36.3426 -0.8578 1.96817 7
36.402 -0.73454 1.97412 7
36.3657 -0.879153 1.22184 7
36.3782 -0.909367 1.85694 7
36.4372 -0.756101 1.22642 7
36.5404 -0.633367 1.23049 7
36.3451 -0.834042 1.75515 7
36.5281 -0.681207 1.65878 7
36.603 -0.557408 1.66421 7
36.4991 -0.730997 1.55041 7
36.5942 -0.607866 1.55545 7
36.4617 -0.780431 1.43974 7
36.5609 -0.657627 1.44444 7
36.6517 -0.53397 1.44928 7
36.5644 -0.562361 2.08977 7
36.4953 -0.707207 1.33656 7
36.6142 -0.584543 1.34072 7
36.505 -0.611964 1.98026 7
36.6968 -0.46032 1.34544 7
36.5795 -0.488081 1.98634 7
36.7709 -0.335403 1.3503 7
36.4298 -0.785799 1.86272 7
36.541 -0.663445 1.86855 7
36.6471 -0.510013 1.23453 7
36.6117 -0.539426 1.87441 7
36.7214 -0.385342 1.23916 7
36.8153 -0.260449 1.24349 7
36.4124 -0.710901 1.76076 7
36.4873 -0.587494 1.76638 7
36.7794 -0.308727 1.67505 7
36.845 -0.183196 1.68063 7
36.9101 -0.057215 1.68625 7
36.6608 -0.48349 1.56076 7
36.771 -0.359439 1.56575 7
36.8207 -0.233774 1.57126 7
36.8981 -0.10806 1.57659 7
36.7341 -0.409538 1.45425 7
36.6387 -0.438203 2.09608 7
36.76 -0.28367 1.45986 7
36.7287 -0.313797 2.10254 7
36.8575 -0.158496 1.46472 7
36.7742 -0.188204 2.10873 7
36.6697 -0.363978 1.99252 7
36.8486 -0.21003 1.35515 7
36.7394 -0.238971 1.99866 7
36.8419 -0.08329 1.36117 7
36.8406 -0.113827 2.00496 7
36.702 -0.415305 1.88032 7
36.7879 -0.290494 1.88626 7
36.8293 -0.164568 1.8922 7
36.5818 -0.463982 1.77199 7
36.6599 -0.339551 1.77768 7
36.7575 -0.214851 1.78336 7
38.0001 -1.77036 1.04312 8
37.9036 -1.9929 0.92755 8
37.5843 -2.10315 0.929414 8
37.5178 -2.48767 0.912965 8
37.5309 -2.87821 0.89451 8
37.6476 -3.14908 0.879365 8
38.0328 -3.44867 0.857004 8
38.1222 -2.98218 0.764587 8
38.1239 -2.7183 0.776878 8
38.1339 -2.59307 1.22784 8
37.8055 -2.53947 1.56825 8
37.7866 -2.93011 1.55071 8
37.9706 -3.34071 1.5315 8
38.0784 -3.74781 1.51286 8
38.2286 -4.02992 1.49968 8
38.4005 -4.31721 1.48622 8
38.7218 -4.49138 1.47713 8
39.0449 -4.80465 1.46193 8
39.2396 -5.2427 1.44188 8
39.4766 -5.19436 1.32691 8
39.7379 -5.56677 1.18883 8
39.7465 -6.01412 1.40607 8
40.0491 -6.34557 1.39039 8
40.3371 -6.67948 1.37472 8
40.4414 -6.98474 1.36116 8
40.7438 -7.32975 1.34503 8
40.9691 -7.7244 1.20561 8
41.184 -7.85423 1.3207 8
41.4025 -8.04621 1.31155 8
41.5731 -8.23005 1.30298 8
41.8024 -8.57809 1.28723 8
42.1108 -8.94793 1.27024 8
42.2502 -9.13154 1.26189 8
42.3396 -9.45843 1.24781 8
42.5001 -9.65016 1.23906 8
42.8931 -9.89924 1.22681 8
42.9251 -9.94627 1.34937 8
42.6898 -9.85368 1.7411 8
42.5962 -9.67631 1.74737 8
42.3055 -9.30066 1.76009 8
42.0926 -9.09957 1.76654 8
41.91 -8.90701 1.77289 8
41.5932 -8.53695 1.78537 8
41.7852 -8.72862 1.77909 8
42.459 -9.48974 1.75372 8
42.8434 -9.95096 1.09652 8
42.8203 -9.78951 1.10351 8
42.7353 -9.83267 0.971265 8
42.2454 -9.77897 0.852145 8
41.7596 -9.81408 0.85718 8
41.5574 -9.85337 0.982918 8
41.4137 -9.88063 0.858962 8
41.8563 -9.90021 0.723507 8
42.0547 -9.79561 0.724871 8
42.6844 -9.91637 1.61006 8
42.6901 -9.98126 1.47574 8
42.6437 -9.81468 1.48239 8
42.7734 -9.7541 1.35754 8
42.8371 -9.4191 1.24707 8
43.0217 -9.1893 1.38025 8
42.3771 -9.59273 0.985374 8
42.1672 -9.60668 0.86071 8
42.4704 -9.7101 1.6174 8
42.4074 -9.54106 1.62386 8
42.3864 -9.59897 1.49087 8
42.5353 -9.54309 1.36667 8
42.3917 -9.53337 1.11764 8
42.2358 -9.40607 0.994899 8
42.3243 -9.36808 1.63041 8
42.2451 -9.41232 1.49828 8
42.5028 -9.38137 1.37337 8
42.2463 -9.34602 1.12668 8
42.2054 -9.18372 1.13388 8
42.238 -9.25349 1.00145 8
42.2131 -9.18959 1.63709 8
41.9568 -8.97973 1.64449 8
42.0484 -9.21429 1.50612 8
41.9561 -9.04144 1.51305 8
42.458 -9.21734 1.38021 8
42.2415 -8.86319 1.39526 8
42.3981 -8.74466 1.39986 8
41.9199 -8.75431 1.27927 8
42.0272 -8.99128 1.14342 8
41.9186 -8.81567 1.15172 8
41.9108 -8.6629 1.15829 8
41.8128 -8.79667 1.65126 8
41.8674 -8.65781 1.65705 8
41.9176 -8.51784 1.66288 8
41.9178 -8.88145 1.51952 8
42.0509 -8.75924 1.52462 8
42.0064 -8.50921 1.41039 8
41.8203 -8.49283 1.16624 8
41.8121 -8.55674 1.53267 8
41.2587 -8.22963 1.67193 8
41.0442 -8.27155 1.79216 8
41.2513 -8.01936 1.80363 8
41.0055 -7.67598 1.81571 8
40.8992 -7.50913 1.82169 8
40.9101 -7.36544 1.82758 8
40.893 -7.21666 1.83349 8
41.4666 -8.3338 1.54147 8
41.649 -8.22261 1.54621 8
41.3846 -8.25152 1.17986 8
41.4101 -8.10826 1.1858 8
41.1856 -7.85858 1.80962 8
41.3663 -8.10373 1.67745 8
41.2107 -7.92421 1.68411 8
41.2938 -7.79326 1.68977 8
41.0034 -7.58934 1.69693 8
41.3057 -8.00365 1.55488 8
41.3538 -7.86539 1.56062 8
41.4745 -8.09889 1.42848 8
41.37 -7.92933 1.43576 8
41.2866 -7.72717 1.32561 8
41.562 -7.6053 1.08007 8
41.1963 -7.56234 1.33304 8
40.9646 -7.87005 1.19938 8
41.2827 -7.84661 1.07247 8
41.3146 -7.70526 1.0783 8
41.2914 -7.70537 1.56718 8
41.2176 -7.75133 1.4435 8
41.3865 -7.63679 1.44799 8
40.9063 -7.56585 1.21291 8
40.8468 -7.40857 1.22013 8
40.8856 -7.32955 1.0992 8
40.9432 -7.19464 1.1045 8
40.9989 -7.44225 1.70293 8
40.872 -7.27248 1.70938 8
41.0359 -7.50892 1.57505 8
40.7678 -7.31212 1.58294 8
40.959 -7.20235 1.58772 8
41.005 -7.41671 1.45794 8
40.8898 -7.2492 1.46521 8
40.6283 -7.16324 1.35267 8
40.8182 -7.25769 1.22686 8
40.5251 -7.0043 1.83955 8
40.1844 -6.65715 1.85133 8
40.1844 -6.51487 1.85717 8
40.0432 -6.06636 1.87467 8
40.211 -5.9516 1.88063 8
40.2362 -5.81389 1.88654 8
40.2913 -5.5708 1.53786 8
40.0166 -5.69713 1.7714 8
39.6279 -5.58122 1.89189 8
39.9974 -6.20012 1.86881 8
40.709 -7.09718 1.71592 8
40.8325 -6.88884 1.60068 8
40.7896 -7.08545 1.4723 8
40.4545 -6.84349 1.36715 8
40.553 -7.06378 1.23723 8
40.3578 -6.88454 1.24646 8
40.343 -6.73872 1.2529 8
40.5203 -6.97235 1.11866 8
40.3325 -6.79509 1.1284 8
40.3138 -6.82271 1.84547 8
40.435 -6.90328 1.7228 8
40.4241 -6.75792 1.72877 8
40.523 -6.63178 1.73441 8
40.6264 -6.99646 1.59594 8
40.3999 -6.66874 1.60942 8
40.6022 -6.90697 1.48019 8
40.5992 -6.76239 1.48632 8
40.509 -6.60301 1.49325 8
40.1402 -6.50286 1.38321 8
40.237 -6.57743 1.2607 8
40.2229 -6.63294 1.13668 8
40.1047 -6.47031 1.14506 8
40.0923 -6.32638 1.15154 8
40.038 -6.3482 1.86299 8
40.3494 -6.45899 1.74087 8
40.0141 -6.23024 1.03847 8
40.1476 -6.48267 1.61695 8
40.1786 -6.34585 1.62275 8
40.2091 -6.40916 1.50202 8
39.9415 -6.18641 1.39775 8
40.092 -5.9283 1.40824 8
40.016 -6.39761 1.27017 8
39.9994 -6.2534 1.27658 8
39.852 -6.08827 1.28488 8
40.0123 -6.17164 1.15919 8
40.0094 -6.26007 1.74775 8
39.8185 -6.08791 1.75414 8
39.9824 -5.97347 1.75963 8
39.8574 -5.81329 1.76583 8
39.767 -6.13667 1.6311 8
39.8205 -6.00491 1.63674 8
39.8853 -5.87471 1.64235 8
40.0328 -5.7568 1.64755 8
40.0464 -6.24024 1.50951 8
39.8949 -6.07444 1.51686 8
39.8652 -5.92906 1.52314 8
40.0935 -5.78735 1.41435 8
39.8304 -5.94428 1.29134 8
40.0217 -5.83358 1.29478 8
39.9042 -5.67494 1.30261 8
39.7817 -5.99356 1.16946 8
39.8387 -5.86224 1.17468 8
40.0456 -5.75353 1.17735 8
39.8745 -5.79006 1.5291 8
39.8992 -5.65346 1.53493 8
39.6579 -5.42079 1.66142 8
39.0455 -5.32636 1.20667 8
38.7614 -5.44656 1.43511 8
38.5515 -5.33479 1.32752 8
38.7256 -5.30517 1.44143 8
39.3669 -5.40382 1.89744 8
39.2309 -5.21566 1.20968 8
39.2278 -5.24584 1.90307 8
39.1475 -5.09717 1.90875 8
39.4979 -4.97669 1.21758 8
39.3524 -5.45836 1.77866 8
39.36 -5.32131 1.7845 8
39.28 -5.17202 1.7905 8
39.4164 -5.52413 1.6567 8
39.3089 -5.23209 1.66906 8
39.4941 -5.11991 1.67412 8
39.6777 -5.34136 1.54877 8
39.1079 -5.08679 1.44928 8
39.1222 -4.95177 1.45513 8
39.0656 -5.27358 1.32644 8
39.4121 -5.04715 1.33389 8
39.0536 -4.86129 1.34474 8
39.0909 -4.43141 1.1315 8
39.2517 -4.20246 1.37259 8
39.2367 -4.20627 1.83176 8
39.2414 -4.56136 1.93216 8
38.8082 -4.10139 1.9487 8
38.6857 -4.2221 1.94261 8
38.7271 -4.01244 1.83793 8
38.9025 -3.97678 1.95476 8
39.4313 -4.50377 1.81976 8
39.5388 -4.37907 1.82562 8
39.2355 -4.39833 1.70499 8
39.2235 -4.26012 1.711 8
39.1537 -4.24636 1.25384 8
39.1413 -4.10851 1.26017 8
38.6805 -3.97682 1.15751 8
39.3648 -4.19025 1.1388 8
39.317 -5.09002 1.21439 8
39.0706 -4.94966 1.91442 8
39.0883 -4.81532 1.92024 8
39.05 -4.67379 1.92597 8
39.1994 -5.02336 1.79648 8
39.0509 -4.86633 1.80254 8
39.0724 -4.92472 1.68197 8
39.3641 -5.15835 1.55721 8
39.1408 -4.98999 1.56487 8
39.0939 -4.67447 1.46744 8
39.0989 -4.73058 1.3502 8
39.1239 -4.59711 1.35594 8
39.1405 -4.46255 1.36181 8
39.0122 -4.77465 1.23162 8
38.9858 -4.63488 1.23814 8
38.9946 -4.49979 1.2441 8
38.9136 -4.71194 1.80856 8
39.0734 -4.59619 1.81422 8
39.0235 -4.28703 1.13892 8
38.9512 -4.77212 1.6884 8
39.1072 -4.6559 1.69364 8
38.8818 -4.49132 1.70047 8
39.0159 -4.83641 1.57175 8
38.9778 -4.69504 1.57798 8
38.8875 -4.54751 1.58456 8
38.8998 -4.41326 1.59042 8
38.7766 -4.33738 1.25363 8
38.7608 -4.26111 1.59731 8
38.7284 -4.1223 1.60346 8
38.3764 -4.18051 1.49237 8
38.541 -4.25445 1.37544 8
38.5121 -3.90295 1.27589 8
38.4404 -3.8163 1.16796 8
38.0484 -3.87689 1.50725 8
38.4124 -3.97148 1.38901 8
38.1962 -3.81432 1.39761 8
37.9146 -3.73541 1.95791 8
38.2225 -3.63569 1.96451 8
38.3686 -3.30584 1.86722 8
38.1328 -3.0974 1.98734 8
38.0193 -2.82402 1.99853 8
38.3226 -2.58412 2.01141 8
38.7473 -2.75025 2.00722 8
38.1135 -2.305 2.02227 8
38.0207 -2.08963 1.91977 8
37.924 -2.05869 1.69687 8
37.6698 -2.06147 1.48072 8
38.2298 -2.18104 2.02868 8
38.1562 -2.22987 1.91408 8
38.2323 -2.44519 2.01691 8
38.396 -2.64377 1.89666 8
38.1862 -2.49562 1.90232 8
38.3779 -2.77509 1.89073 8
38.2956 -2.90095 1.88478 8
38.555 -3.5114 1.74291 8
38.0298 -3.80188 1.844 8
38.3154 -3.56668 1.85554 8
38.3604 -4.02543 1.72005 8
38.0648 -3.8594 1.7269 8
38.2498 -3.74675 1.73211 8
38.3309 -3.62221 1.7377 8
38.4372 -3.95499 1.61127 8
38.1159 -3.6194 1.51842 8
37.9699 -3.47238 1.52562 8
38.0032 -3.66122 1.40587 8
37.8971 -3.51843 1.41305 8
37.9816 -3.39518 1.41798 8
38.0888 -3.72387 1.28831 8
38.0008 -3.48076 1.9696 8
38.2316 -3.34076 1.30418 8
38.1009 -3.35864 1.97567 8
38.1171 -3.22806 1.98149 8
38.0395 -3.67073 1.84976 8
38.0695 -3.40956 1.86133 8
38.3846 -3.36124 1.74929 8
38.0379 -3.77818 1.61968 8
37.956 -3.63742 1.62603 8
38.241 -3.26891 1.64198 8
38.0545 -3.21688 1.53668 8
37.8471 -3.06639 1.54433 8
38.0059 -3.26573 1.42364 8
37.7908 -3.11437 1.43202 8
37.9013 -3.17761 1.31496 8
37.873 -2.94296 1.9922 8
38.0818 -3.14671 1.87295 8
37.9538 -3.00359 1.87869 8
37.9347 -3.18653 1.75638 8
37.9861 -3.05967 1.76208 8
38.073 -2.93555 1.76773 8
38.2112 -2.8151 1.77331 8
37.9262 -3.10791 1.64962 8
38.0611 -2.98823 1.65478 8
37.7655 -2.7976 1.55677 8
37.6442 -2.65736 1.56361 8
37.8229 -2.41011 1.57404 8
37.6349 -2.96979 1.43968 8
37.6099 -2.83741 1.44585 8
37.6243 -2.70845 1.45159 8
37.6583 -2.58097 1.45713 8
37.6678 -2.45151 1.46294 8
38.0133 -2.40462 1.7914 8
37.8864 -2.26472 1.79751 8
37.9387 -2.13731 1.80333 8
37.9962 -2.85105 1.66102 8
38.091 -2.3321 1.68424 8
38.4358 -2.2425 1.46694 8
38.7304 -2.20819 1.57934 8
38.9343 -2.08712 1.58399 8
39.2535 -1.9714 1.58791 8
39.3664 -2.03267 1.46985 8
37.904 -2.18827 1.69102 8
38.199 -2.30537 1.57719 8
38.3352 -2.36819 1.46194 8
37.7856 -2.64358 1.34044 8
37.7755 -2.51217 1.34655 8
38.2037 -2.41222 1.34675 8
38.3762 -2.29196 1.35049 8
38.2592 -2.47034 1.23183 8
38.0385 -2.72294 1.6667 8
38.1362 -2.59884 1.67215 8
38.1617 -2.46886 1.67797 8
38.2138 -2.48983 0.4469 8
38.1956 -2.64527 0.665541 8
37.9757 -2.55059 0.563786 8
38.1243 -2.61518 0.443981 8
37.8876 -3.57076 1.29729 8
38.008 -3.45119 1.30147 8
37.9929 -3.63589 1.18207 8
38.1016 -3.51487 1.18614 8
38.3493 -3.4067 1.1878 8
38.233 -3.71482 1.06069 8
38.342 -3.59307 1.0645 8
38.3511 -3.46077 1.07041 8
38.0341 -3.48327 0.963125 8
37.9061 -3.30449 0.866475 8
37.872 -3.22883 1.2022 8
37.8502 -3.27995 1.08681 8
37.9433 -3.34243 0.971358 8
37.6234 -3.01643 0.886059 8
37.8042 -3.21667 0.76155 8
37.6806 -3.07441 0.771271 8
37.817 -3.13986 0.65285 8
37.6136 -2.9908 0.665526 8
37.6142 -3.02069 1.32502 8
37.7442 -2.87154 0.667489 8
37.5974 -2.88899 1.33118 8
37.6957 -2.76692 1.33574 8
37.7125 -3.08312 1.21095 8
37.5858 -2.91153 0.558764 8
37.5884 -2.94168 1.21905 8
37.8383 -3.14758 1.09308 8
37.6786 -3.00234 1.10234 8
37.6171 -3.18042 0.985075 8
37.7523 -3.06207 0.98796 8
37.5416 -2.74916 0.900275 8
37.5319 -2.61851 0.906566 8
37.7069 -2.81553 0.782714 8
37.7952 -2.5613 0.792402 8
37.6871 -2.73621 0.675438 8
37.6963 -2.79044 0.56108 8
37.5992 -2.81242 1.22483 8
37.6788 -2.65855 0.567848 8
37.7252 -2.69236 1.22867 8
37.6737 -2.87141 1.10844 8
37.6324 -2.73764 1.11526 8
37.814 -2.62152 1.11768 8
37.9194 -2.49856 1.12165 8
37.6679 -2.92399 0.995955 8
37.7624 -2.80133 0.999824 8
37.6133 -2.65884 1.00927 8
37.8384 -2.54571 1.01021 8
37.3755 -2.34784 0.922594 8
37.322 -2.29541 0.486267 8
37.2442 -2.21344 0.381276 8
37.3267 -2.16674 0.492206 8
37.3883 -2.2196 0.928285 8
37.3262 -2.39646 0.811786 8
37.3432 -2.26866 0.817341 8
37.4679 -2.45918 0.694566 8
37.2617 -2.3151 0.70708 8
37.43 -2.19765 0.70791 8
37.6583 -1.98323 1.37197 8
37.3473 -2.37401 0.591505 8
37.2446 -2.23789 0.601098 8
37.6111 -2.15732 0.815882 8
37.594 -2.07882 0.708924 8
37.8295 -2.30835 1.24492 8
37.5722 -2.13052 0.596057 8
37.6425 -2.1654 1.25396 8
37.9434 -2.02358 0.589653 8
37.9686 -2.37095 1.12674 8
37.734 -2.22402 1.13732 8
37.9157 -2.42042 1.01454 8
37.8329 -2.28371 1.02246 8
37.8699 -2.12681 1.36323 8
38.0169 -1.97447 0.702039 8
37.7975 -1.86133 1.37616 8
37.6905 -2.03844 1.25918 8
37.802 -1.91494 1.26341 8
37.9051 -1.79025 1.26781 8
37.7024 -2.09171 1.14395 8
37.8659 -1.97141 1.14687 8
37.9453 -1.84523 1.15144 8
38.0161 -1.71812 1.15619 8
37.9372 -2.15978 1.02622 8
38.1329 -2.0408 1.02801 8
37.965 -1.89944 1.03779 8
32.8195 -1.88789 -0.016835 9
32.7937 -2.30752 -0.125482 9
32.3373 -2.49444 -0.10859 9
32.4382 -2.95278 -0.137184 9
32.3909 -3.06038 -0.139863 9
32.446 -3.13792 0.327574 9
32.6075 -3.44878 0.402875 9
32.8466 -3.4817 0.7753 9
33.0824 -3.76017 0.951241 9
32.8439 -4.00662 0.848203 9
33.2089 -4.2188 0.730559 9
33.5294 -4.51866 0.906366 9
33.676 -4.06887 0.923925 9
33.7275 -4.12956 1.21604 9
33.8337 -4.02555 1.21932 9
33.9194 -3.61227 1.13523 9
34.0796 -3.51238 1.1372 9
33.8642 -3.30112 1.05125 9
33.4432 -3.15499 0.873007 9
33.333 -3.07517 0.780852 9
32.8643 -2.96053 0.702064 9
32.7878 -2.77221 0.6169 9
32.3665 -2.63478 0.451653 9
32.6023 -2.31823 0.457515 9
32.6749 -2.21127 0.459767 9
33.1139 -2.01677 0.451691 9
33.4248 -1.92343 0.443845 9
33.2 -2.4664 0.617497 9
33.5599 -2.38054 0.609407 9
33.1566 -2.16595 0.534049 9
32.8148 -2.10886 0.459128 9
32.905 -2.26081 0.538794 9
32.4282 -2.34983 0.366464 9
32.5487 -2.24732 0.366272 9
32.476 -2.53247 0.452236 9
32.5931 -2.43011 0.452515 9
32.4489 -2.67401 0.535853 9
32.5345 -2.5693 0.537705 9
32.7035 -2.47114 0.536175 9
32.7765 -2.36404 0.538599 9
32.9016 -2.66903 0.617957 9
32.9753 -2.56161 0.62057 9
33.0544 -2.86499 0.70072 9
33.5195 -2.978 0.780222 9
33.2521 -2.7689 0.699164 9
33.9596 -2.97339 0.86863 9
33.9119 -3.91736 1.22318 9
33.6557 -3.69872 1.13556 9
33.7664 -4.60728 1.19404 9
34.0378 -5.00575 1.17258 9
34.1062 -5.13656 1.16583 9
33.9782 -5.04548 1.06919 9
34.3536 -4.91338 0.967925 9
34.6159 -4.79829 0.869585 9
34.6716 -4.47563 0.981851 9
34.5493 -4.82199 0.968349 9
33.9571 -4.87366 1.17956 9
33.8996 -4.74576 1.18606 9
33.949 -4.92142 1.07527 9
33.7434 -4.48568 1.1998 9
33.7438 -4.36762 1.2051 9
33.6883 -4.24205 1.21149 9
33.5974 -4.51307 1.09947 9
33.6177 -4.39827 1.10435 9
33.6257 -4.44801 1.00315 9
33.657 -4.09932 1.01853 9
33.5973 -4.41086 0.909853 9
33.6451 -4.29992 0.913928 9
33.6568 -4.18389 0.919032 9
33.3556 -4.4245 0.815982 9
33.4272 -4.31775 0.819173 9
33.6133 -4.22619 0.818808 9
33.2208 -4.33668 0.724687 9
33.4193 -4.13655 1.11946 9
33.3194 -4.11754 0.73224 9
33.0812 -4.13368 0.639833 9
33.0249 -4.01068 0.647395 9
33.4224 -4.02026 1.12469 9
33.4688 -3.90954 1.12898 9
33.5227 -3.79954 1.13312 9
33.2063 -3.8082 1.04052 9
33.0882 -3.64568 0.956412 9
32.8388 -3.89133 0.853706 9
32.9403 -3.78959 0.855921 9
32.982 -3.67993 0.859997 9
32.9677 -3.56343 0.865787 9
32.8707 -3.94258 0.752969 9
32.8573 -3.82622 0.75881 9
33.0142 -3.73107 0.758911 9
32.9525 -3.60869 0.766382 9
33.066 -3.39226 0.77339 9
33.0904 -3.28004 0.777984 9
32.9682 -3.88812 0.65495 9
32.8092 -3.06879 0.698644 9
32.8476 -3.75809 0.66483 9
32.8614 -3.64531 0.669746 9
32.8034 -3.52407 0.677276 9
32.7369 -3.40238 0.685086 9
32.8053 -3.18225 0.693393 9
32.8633 -3.80715 0.565035 9
32.8376 -3.68944 0.571521 9
32.748 -3.56438 0.580517 9
32.8111 -3.61895 0.477223 9
32.5885 -3.33326 0.409208 9
32.4976 -3.2101 0.41875 9
32.3546 -3.08215 0.430581 9
32.3542 -2.96988 0.43601 9
32.3653 -2.85882 0.440922 9
32.4437 -2.75417 0.442858 9
32.6001 -3.38098 0.309205 9
32.5054 -3.25718 0.319253 9
32.3368 -2.7898 0.3491 9
32.6819 -3.28252 0.692454 9
32.7333 -3.44872 0.586528 9
32.6189 -3.32209 0.596429 9
32.6232 -3.20923 0.601659 9
32.5353 -2.97387 0.615838 9
32.5065 -2.85827 0.622311 9
32.7331 -3.49559 0.486019 9
32.6308 -3.37011 0.495808 9
32.5598 -3.24889 0.504237 9
32.4635 -2.90031 0.524487 9
32.4425 -2.78579 0.530742 9
32.5682 -3.31077 0.217881 9
32.5991 -3.36107 0.116154 9
32.3425 -3.01459 0.337966 9
32.3299 -2.90117 0.344 9
32.513 -3.1916 0.226225 9
32.4534 -3.07245 0.234761 9
32.3854 -2.95295 0.243689 9
32.4964 -3.23646 0.127274 9
32.4449 -3.1181 0.135598 9
32.4169 -3.00258 0.14264 9
32.5429 -3.28808 0.026966 9
32.4559 -3.16561 0.037514 9
32.3923 -3.04626 0.046695 9
32.6325 -3.34473 -0.078594 9
32.5537 -3.22265 -0.068205 9
32.4664 -3.10033 -0.057356 9
32.2984 -2.82657 -0.122878 9
32.2654 -2.71154 -0.115256 9
32.2916 -2.60219 -0.111319 9
32.3553 -2.67953 0.353652 9
32.3494 -2.56703 0.359337 9
32.383 -2.45804 0.363168 9
32.309 -2.83319 0.253005 9
32.3077 -2.72113 0.258519 9
32.318 -2.61021 0.263446 9
32.3478 -2.50097 0.267397 9
32.3732 -2.39125 0.271562 9
32.4261 -2.28361 0.274366 9
32.3009 -2.87863 0.154349 9
32.2918 -2.7658 0.160318 9
32.35 -2.65932 0.162707 9
32.3362 -2.5461 0.16891 9
32.3538 -2.43574 0.17344 9
32.3242 -2.92701 0.056091 9
32.2994 -2.8125 0.063016 9
32.318 -2.70231 0.067489 9
32.3162 -2.59023 0.073088 9
32.3061 -2.47752 0.07914 9
32.3668 -2.97745 -0.045815 9
32.2826 -2.85687 -0.03524 9
32.3172 -2.74824 -0.031739 9
32.2917 -2.63394 -0.024697 9
32.2818 -2.52126 -0.018591 9
32.3269 -2.38173 -0.102416 9
32.5264 -2.17932 0.274842 9
32.4427 -2.33113 0.174223 9
32.3514 -2.36953 0.082101 9
32.3883 -2.26063 0.085528 9
32.363 -2.41641 -0.017848 9
32.3802 -2.30588 -0.013346 9
32.9666 -1.97981 -0.119258 9
32.6888 -2.1455 0.365207 9
32.7847 -2.03958 0.366216 9
32.6144 -2.07347 0.275945 9
32.7701 -2.24463 0.16253 9
32.95 -2.14486 0.158641 9
33.0738 -2.0399 0.157719 9
32.8705 -1.91199 0.17379 9
33.1848 -1.81877 0.163025 9
32.5921 -2.16421 0.079742 9
32.6601 -2.05659 0.081482 9
32.7717 -1.95154 0.080848 9
32.9984 -1.85331 0.073936 9
32.8628 -2.23128 -0.035994 9
32.9271 -2.12247 -0.034168 9
32.7082 -1.99335 -0.015913 9
30.2042 -3.17638 0.062 10
29.9144 -3.31973 -0.011319 10
29.6079 -3.69494 -0.012881 10
29.1973 -3.94499 -0.002245 10
29.2063 -4.35626 -0.02395 10
29.4077 -4.69973 -0.05325 10
29.6757 -5.06088 -0.087356 10
29.7143 -5.53441 -0.205416 10
29.3993 -5.68149 -0.194464 10
29.0154 -5.91389 -0.184047 10
28.7076 -6.15671 -0.178842 10
28.3549 -6.48626 -0.175818 10
28.0928 -6.72903 -0.173577 10
27.7593 -6.94861 -0.165918 10
27.4089 -7.15772 -0.156779 10
27.0608 -7.46178 -0.153215 10
26.7134 -7.75873 -0.149466 10
26.3971 -8.05853 -0.147889 10
26.3146 -8.13141 -0.147208 10
26.4793 -7.98517 -0.148543 10
26.5576 -7.91013 -0.148878 10
26.6623 -7.84295 -0.151227 10
26.9991 -7.54414 -0.154205 10
27.1415 -7.3846 -0.153644 10
27.2295 -7.30914 -0.154623 10
27.3097 -7.231 -0.154997 10
27.5541 -7.09646 -0.161965 10
27.6106 -7.0104 -0.160528 10
27.8848 -6.87981 -0.169553 10
27.9561 -6.79626 -0.169165 10
28.1636 -6.64443 -0.173128 10
28.2342 -6.55942 -0.172652 10
28.4289 -6.40119 -0.175565 10
28.5259 -6.32118 -0.176971 10
28.5838 -6.23155 -0.175537 10
28.8156 -6.07758 -0.180986 10
28.9468 -6.00294 -0.184765 10
29.1032 -5.82862 -0.184692 10
29.2338 -5.75184 -0.188355 10
29.5295 -5.60291 -0.198033 10
30.0051 -5.4909 0.134811 10
30.2121 -5.82719 0.38118 10
30.4824 -6.21032 0.351592 10
30.7478 -6.59976 0.321842 10
30.9479 -6.86897 0.300596 10
31.1612 -7.14506 0.278472 10
31.3489 -7.41866 0.257461 10
31.5193 -7.57624 0.242904 10
31.6011 -7.66826 0.709062 10
31.5173 -7.48385 0.814625 10
31.2792 -7.19667 0.832981 10
31.1923 -7.0624 0.841029 10
30.9048 -6.6584 0.865832 10
30.8156 -6.527 0.873806 10
30.8924 -6.21597 1.25256 10
30.857 -5.87291 0.90285 10
30.5709 -6.0332 0.901804 10
30.6396 -5.93813 0.904647 10
30.4655 -5.62683 1.19256 10
30.4465 -5.51481 1.19777 10
30.6374 -5.16238 1.11832 10
30.8898 -5.1626 1.20747 10
31.118 -4.91936 1.12143 10
31.1825 -4.50481 0.958587 10
31.1673 -4.39307 0.964073 10
31.0605 -4.4218 0.873283 10
31.1082 -4.32006 0.876831 10
31.1082 -4.21107 0.881909 10
30.7308 -4.03006 0.717188 10
30.423 -4.09263 0.723707 10
30.0561 -4.24963 0.727562 10
29.7786 -4.52088 0.723235 10
29.5408 -4.8496 0.455766 10
29.6694 -5.08229 0.43927 10
29.8223 -5.28269 0.86409 10
30.0359 -5.27891 0.948187 10
29.996 -5.16508 0.954295 10
29.7791 -5.48608 0.855719 10
29.7832 -5.38101 0.860497 10
29.9201 -5.19516 0.865722 10
29.9872 -5.40333 0.674859 10
29.8721 -5.08042 0.872252 10
29.7813 -5.4248 0.769361 10
29.801 -5.32274 0.773613 10
29.8478 -5.22577 0.776869 10
29.8588 -5.12204 0.781438 10
29.9125 -5.28269 0.682899 10
29.5817 -4.96143 0.448663 10
29.3169 -4.49985 0.481736 10
29.3058 -4.39491 0.487309 10
29.3602 -3.99176 0.504841 10
29.3987 -3.89459 0.508056 10
29.8071 -3.67253 0.585102 10
29.7591 -3.53119 0.511484 10
29.9069 -3.44633 0.509756 10
30.3424 -3.42724 0.577233 10
29.9395 -3.58591 0.584409 10
30.2421 -3.52014 0.576449 10
29.4882 -3.80446 0.508909 10
29.5577 -3.71105 0.510708 10
29.6625 -3.62198 0.510894 10
29.5509 -3.94784 0.581237 10
29.6168 -3.85382 0.583354 10
29.7022 -3.76212 0.584639 10
29.2588 -4.28445 0.494564 10
29.2903 -4.18666 0.498096 10
29.3254 -4.0893 0.501459 10
29.3632 -4.22929 0.574529 10
29.3866 -4.12983 0.578481 10
29.4452 -4.03557 0.580885 10
29.8452 -5.16411 0.690612 10
29.7735 -5.04535 0.698469 10
29.8234 -5.2042 0.600672 10
29.7676 -5.08825 0.608132 10
29.7613 -5.1312 0.516157 10
29.6737 -5.00992 0.525266 10
29.4483 -4.72925 0.465318 10
29.3592 -4.61028 0.474662 10
29.8066 -5.00692 0.788306 10
29.7815 -4.89711 0.794169 10
29.815 -4.79777 0.797908 10
29.7446 -4.93488 0.704611 10
29.6798 -4.81848 0.712139 10
29.6343 -4.70597 0.718888 10
29.6869 -4.61034 0.721812 10
29.6917 -4.96924 0.616414 10
29.6428 -4.85567 0.623519 10
29.5857 -4.74114 0.630949 10
29.5556 -4.63173 0.637215 10
29.5133 -4.52064 0.643972 10
29.5101 -4.41628 0.64909 10
29.6093 -4.89351 0.533289 10
29.5405 -4.77693 0.541477 10
29.4869 -4.66357 0.548943 10
29.429 -4.54999 0.556577 10
29.3825 -4.43881 0.563674 10
29.3592 -4.33179 0.569712 10
29.8464 -4.42704 0.725603 10
29.9376 -4.33651 0.727092 10
29.6288 -4.33137 0.649154 10
29.7157 -4.2408 0.650561 10
29.7668 -4.1443 0.65346 10
29.8373 -4.05042 0.655576 10
30.1902 -4.16435 0.727476 10
29.9629 -3.96407 0.655468 10
30.1437 -3.88467 0.653166 10
30.6783 -3.91532 0.724249 10
30.4391 -3.81978 0.646295 10
30.5957 -3.73439 0.645087 10
30.6055 -3.62894 0.649795 10
31.0843 -4.25257 0.788174 10
31.0523 -4.1391 0.794399 10
31.4244 -5.14728 1.20102 10
31.5332 -5.33782 0.912528 10
31.6582 -5.13659 0.919033 10
31.6451 -5.18057 0.823412 10
31.4547 -5.35636 1.00336 10
31.4588 -5.04224 1.20524 10
31.3745 -4.91709 1.21194 10
31.2975 -4.83953 1.1221 10
31.2953 -4.72897 1.12713 10
31.1963 -4.75861 1.03553 10
31.2688 -4.66047 1.03862 10
31.2344 -4.54515 1.04455 10
30.7545 -5.07477 1.12035 10
30.8792 -4.98776 1.12223 10
30.1298 -5.22208 1.03492 10
30.5567 -5.42763 1.20015 10
30.6588 -5.33828 1.20275 10
30.7764 -5.25117 1.20504 10
30.3629 -5.54359 1.1057 10
30.2887 -5.42147 1.11238 10
30.4497 -5.34422 1.11321 10
30.5279 -5.2507 1.11614 10
30.1774 -5.33792 1.02874 10
30.4444 -5.49654 1.01641 10
30.6311 -5.71786 0.914934 10
30.64 -5.61057 0.919661 10
30.459 -5.83733 0.822455 10
30.6604 -5.76914 0.820601 10
30.5625 -5.75479 1.18561 10
30.5623 -5.69121 1.09583 10
30.4988 -5.61549 1.00998 10
30.8169 -6.08951 1.25884 10
30.7721 -5.97013 1.2645 10
30.9033 -5.88695 1.26674 10
30.751 -6.01214 1.17174 10
30.6393 -5.8795 1.17908 10
30.575 -5.91182 1.08576 10
30.7217 -5.83236 1.08691 10
30.6708 -5.97745 0.990273 10
30.6531 -5.8643 0.995734 10
30.8781 -5.79996 0.994321 10
30.8463 -6.14233 1.16474 10
30.8664 -6.42742 0.877241 10
31.1002 -6.59547 1.23395 10
31.3932 -6.46466 0.954342 10
31.577 -6.35799 0.864759 10
31.6197 -6.40058 0.952873 10
31.5879 -6.28055 0.958911 10
31.0497 -6.47245 1.2398 10
30.983 -6.34644 1.24595 10
31.1444 -6.6528 1.13833 10
31.0746 -6.52516 1.14486 10
31.0199 -6.4015 1.15102 10
30.9334 -6.27158 1.15788 10
31.0173 -6.55891 1.04968 10
30.9588 -6.43447 1.05617 10
31.2291 -6.5411 0.954054 10
31.206 -6.77922 1.13197 10
31.1571 -6.70248 1.041 10
31.1975 -6.64638 0.949913 10
31.1048 -6.92881 0.84906 10
31.0051 -6.79322 0.857455 10
31.2709 -6.90706 1.1255 10
31.2792 -6.95619 1.02774 10
31.199 -6.82457 1.03489 10
31.2989 -7.00831 0.931653 10
31.25 -6.88372 0.938205 10
31.1928 -6.75777 0.944982 10
31.3706 -7.09123 1.02025 10
31.4017 -7.1464 0.923455 10
31.3772 -7.33452 0.824528 10
31.6288 -7.43076 0.906285 10
31.5233 -7.29003 0.914649 10
31.5123 -7.53054 0.717656 10
31.5667 -7.63633 0.141555 10
31.357 -7.37713 0.728639 10
31.5535 -7.58899 0.618206 10
31.4023 -7.43615 0.629606 10
31.6096 -7.65201 0.517717 10
31.482 -7.50457 0.528683 10
31.5609 -7.68784 0.422172 10
31.5187 -7.5619 0.429699 10
31.6013 -7.63115 0.326392 10
31.3058 -7.29391 0.265376 10
31.4121 -7.48221 0.155883 10
31.3421 -7.35041 0.165507 10
31.2437 -7.23536 0.738036 10
31.1414 -7.09729 0.746986 10
31.4011 -7.41301 0.065026 10
31.3425 -7.28429 0.074272 10
31.2621 -7.28734 0.640512 10
31.3266 -7.35139 0.540778 10
31.3675 -7.40928 0.442187 10
31.2388 -7.26355 0.453576 10
31.4659 -7.48189 0.33869 10
31.2949 -7.32506 0.352658 10
31.0127 -7.1198 -0.185848 10
30.6582 -7.25702 -0.1741 10
30.2956 -7.38765 -0.161602 10
29.9437 -7.62655 -0.155565 10
29.6709 -7.8815 -0.154727 10
29.3959 -8.13162 -0.153608 10
29.4597 -8.04069 -0.152063 10
29.5692 -7.9625 -0.153678 10
29.7377 -7.79033 -0.153367 10
29.862 -7.71452 -0.155932 10
30.0483 -7.54424 -0.156742 10
30.1798 -7.46835 -0.159716 10
30.4537 -7.31704 -0.166316 10
30.8627 -7.19566 -0.181821 10
31.0268 -7.01054 -0.180781 10
31.0704 -7.01031 0.28875 10
31.1745 -7.1955 0.180412 10
31.1189 -7.06893 0.189153 10
31.0308 -6.95818 0.756194 10
30.939 -6.82448 0.764682 10
31.1785 -7.13073 0.089534 10
31.1523 -7.14713 0.650165 10
31.1109 -7.00153 0.099192 10
31.0536 -7.01057 0.659339 10
31.1796 -7.17862 -0.008612 10
31.1899 -7.20413 0.552013 10
31.0773 -7.04091 0.00345 10
31.0875 -7.06631 0.56174 10
31.0016 -6.91042 0.01385 10
31.086 -7.09024 -0.092729 10
31.2338 -7.14885 0.4593 10
30.9912 -6.95495 -0.080789 10
31.0885 -7.00096 0.471352 10
31.2902 -7.21009 0.358486 10
31.1529 -7.06363 0.370705 10
30.9899 -6.88941 -0.172349 10
31.0614 -6.79382 -0.171128 10
30.8442 -6.73307 0.311426 10
31.02 -6.93273 0.200202 10
30.8427 -6.77917 0.21543 10
30.7893 -6.65551 0.223913 10
30.8428 -6.69061 0.77329 10
30.7732 -6.56368 0.78091 10
30.6876 -6.43383 0.789071 10
31.0312 -6.87017 0.109505 10
30.962 -6.87661 0.66819 10
30.9042 -6.72867 0.12246 10
30.8582 -6.74068 0.677475 10
30.8155 -6.59698 0.133177 10
30.7733 -6.61 0.685985 10
31.0079 -6.93483 0.570465 10
30.9021 -6.77513 0.025638 10
30.9005 -6.79764 0.580315 10
30.837 -6.64862 0.035307 10
30.8119 -6.66575 0.58933 10
30.748 -6.5174 0.046361 10
30.4955 -6.19031 -0.193581 10
30.0795 -6.42498 -0.18255 10
29.7054 -6.55451 -0.168333 10
29.3336 -6.78628 -0.159812 10
28.9653 -7.11823 -0.157051 10
28.6204 -7.44869 -0.155695 10
28.3075 -7.67632 -0.150631 10
28.0214 -7.80237 -0.141533 10
27.6311 -8.10032 -0.136214 10
27.3517 -8.42594 -0.138824 10
26.9779 -8.71453 -0.134238 10
27.0584 -8.63875 -0.134439 10
27.1235 -8.55747 -0.133485 10
27.2452 -8.49454 -0.136736 10
27.42 -8.3445 -0.138069 10
27.5071 -8.26872 -0.138689 10
27.5749 -8.18647 -0.137883 10
28.1722 -7.74202 -0.146658 10
28.4235 -7.60434 -0.153181 10
28.4701 -7.51232 -0.150738 10
28.6858 -7.36109 -0.154571 10
28.8049 -7.28758 -0.157254 10
28.8814 -7.20212 -0.156894 10
29.0722 -7.0398 -0.15881 10
29.1518 -6.95386 -0.158633 10
29.2428 -6.87034 -0.159238 10
29.4706 -6.71293 -0.163594 10
29.5765 -6.63132 -0.165176 10
29.8458 -6.47959 -0.172253 10
30.2391 -6.35229 -0.187699 10
30.3674 -6.27171 -0.190662 10
30.7394 -6.02262 -0.198494 10
30.9784 -5.85104 -0.20297 10
31.2151 -5.78737 -0.213046 10
31.3968 -5.71146 -0.219367 10
30.8004 -5.92517 -0.196786 10
30.6586 -6.11556 -0.198847 10
30.9268 -6.82769 -0.070835 10
30.9307 -6.85145 0.483895 10
30.932 -6.71706 -0.065304 10
30.8464 -6.72018 0.493085 10
30.8395 -6.58446 -0.053649 10
30.7074 -6.44392 -0.039572 10
31.0538 -6.92738 0.381019 10
30.8919 -6.77746 0.394302 10
30.815 -6.64833 0.403448 10
30.6741 -6.47245 0.331055 10
30.5844 -6.3423 0.341039 10
30.7042 -6.52528 0.23406 10
30.6147 -6.39485 0.2444 10
30.5207 -6.26429 0.254927 10
30.617 -6.30809 0.796664 10
30.5147 -6.17619 0.805336 10
30.4236 -6.04757 0.813579 10
30.7146 -6.4634 0.144537 10
30.6801 -6.47825 0.694779 10
30.6093 -6.32974 0.156095 10
30.5863 -6.34723 0.703553 10
30.519 -6.20025 0.166758 10
30.5115 -6.22117 0.711569 10
30.715 -6.53281 0.598651 10
30.639 -6.38257 0.058556 10
30.641 -6.40582 0.606983 10
30.545 -6.25199 0.069802 10
30.5469 -6.27517 0.616106 10
30.7497 -6.58694 0.50278 10
30.6642 -6.45708 0.511935 10
30.6059 -6.31121 -0.027474 10
30.5782 -6.32789 0.521073 10
30.5038 -6.1793 -0.015398 10
30.7259 -6.5172 0.413138 10
30.6401 -6.38763 0.422626 10
30.5421 -6.25619 0.432649 10
30.3915 -6.08163 0.361537 10
30.2962 -5.95284 0.371658 10
30.434 -6.13613 0.26502 10
30.3351 -6.00619 0.275716 10
30.3397 -5.92129 0.821532 10
30.4359 -6.07316 0.176961 10
30.4362 -6.09572 0.719566 10
30.3563 -5.94754 0.186929 10
30.3721 -5.97334 0.727107 10
30.2958 -5.84906 0.735077 10
30.1994 -5.72143 0.743765 10
30.1377 -5.60156 0.75112 10
30.4466 -6.1213 0.08126 10
30.4484 -6.14442 0.625369 10
30.3437 -5.99054 0.09293 10
30.365 -6.01772 0.633976 10
30.281 -5.8917 0.642563 10
30.1966 -5.76634 0.651134 10
30.1194 -5.64321 0.659371 10
30.0614 -5.52454 0.666806 10
30.4838 -6.19769 0.530538 10
30.4207 -6.05231 -0.004555 10
30.385 -6.06741 0.540156 10
30.3019 -5.91866 0.008447 10
30.2934 -5.93952 0.54941 10
30.2131 -5.81475 0.558135 10
30.4591 -6.12887 0.441915 10
30.3522 -5.99727 0.452265 10
30.3494 -5.8654 -0.083723 10
30.2721 -5.87215 0.461312 10
30.104 -5.69747 0.391842 10
30.0189 -5.57324 0.401324 10
29.9529 -5.45351 0.409828 10
29.851 -5.32754 0.420044 10
29.7604 -5.20457 0.429666 10
30.2473 -5.87945 0.285772 10
30.1473 -5.75101 0.296427 10
30.0545 -5.62491 0.306651 10
29.9574 -5.49875 0.31706 10
29.8832 -5.37789 0.326225 10
30.1775 -5.19746 -0.215206 10
30.2604 -5.81934 0.197752 10
30.168 -5.69267 0.208338 10
30.0789 -5.5675 0.218688 10
29.9894 -5.44302 0.22902 10
30.2598 -5.86464 0.103426 10
30.1715 -5.7386 0.114134 10
30.0944 -5.61559 0.124138 10
30.206 -5.79071 0.019977 10
30.1205 -5.68826 0.567353 10
30.043 -5.56559 0.575873 10
29.969 -5.44429 0.584209 10
29.9063 -5.32583 0.592026 10
30.2729 -5.74147 -0.073095 10
30.1797 -5.74528 0.47089 10
30.1065 -5.62303 0.479543 10
30.0131 -5.49753 0.489085 10
29.9192 -5.37276 0.498607 10
29.8326 -5.25019 0.50775 10
30.1174 -5.66508 0.031004 10
30.0205 -5.53859 0.042493 10
30.1723 -5.61349 -0.060965 10
30.083 -5.48858 -0.049615 10
29.8833 -5.46163 -0.211638 10
29.9503 -5.36817 -0.210667 10
30.0797 -5.28614 -0.214053 10
29.7968 -5.25538 0.335985 10
29.7099 -5.13355 0.345728 10
30.0905 -5.07472 -0.203503 10
29.6539 -5.01812 0.353835 10
29.6997 -4.92137 0.356698 10
29.8954 -5.31849 0.239548 10
29.8009 -5.19469 0.250057 10
29.7059 -5.07161 0.260545 10
29.7008 -4.96553 0.2661 10
29.9113 -5.36615 0.145693 10
29.8327 -5.24508 0.155648 10
29.7222 -5.11881 0.167398 10
29.9504 -5.41817 0.052284 10
29.8603 -5.29458 0.063256 10
29.7736 -5.17242 0.073972 10
29.9893 -5.36362 -0.038032 10
29.895 -5.23938 -0.026469 10
29.8081 -5.11731 -0.015425 10
29.5528 -4.93368 -0.073712 10
29.4766 -4.81573 -0.063214 10
29.504 -4.86398 -0.157245 10
29.4855 -4.77897 0.372841 10
29.5069 -4.67859 0.376906 10
29.1606 -5.05283 -0.233729 10
28.8248 -5.19501 -0.220286 10
28.4993 -5.53841 -0.218435 10
28.1191 -5.86254 -0.212318 10
27.8013 -6.19283 -0.210639 10
27.4682 -6.51254 -0.207612 10
27.1099 -6.71911 -0.196863 10
26.7326 -7.01254 -0.189957 10
26.4136 -7.31479 -0.187362 10
26.0571 -7.59898 -0.181596 10
25.9798 -7.67256 -0.181067 10
26.1455 -7.52843 -0.183005 10
26.4937 -7.23993 -0.188052 10
26.6042 -7.17338 -0.191117 10
26.6532 -7.0888 -0.189349 10
26.7965 -6.93159 -0.189343 10
26.9024 -6.86175 -0.191984 10
26.9889 -6.78612 -0.193102 10
27.1883 -6.6403 -0.197322 10
27.3476 -6.58181 -0.203969 10
27.546 -6.43192 -0.207971 10
27.6468 -6.35653 -0.210068 10
27.7281 -6.27585 -0.210662 10
27.8899 -6.11302 -0.211761 10
27.9665 -6.02998 -0.211975 10
28.0429 -5.94649 -0.21216 10
28.2106 -5.78155 -0.213608 10
28.2823 -5.69577 -0.213413 10
28.3694 -5.61289 -0.214352 10
28.582 -5.45351 -0.219016 10
28.6332 -5.36182 -0.217265 10
28.6998 -5.27293 -0.21664 10
28.8908 -5.10512 -0.2196 10
29.3753 -4.98868 -0.243784 10
29.5389 -4.91396 -0.250074 10
29.4469 -4.79334 -0.237869 10
29.5537 -4.83458 0.27933 10
29.4847 -4.71831 0.288279 10
29.6679 -4.51804 -0.237177 10
30.0706 -4.47845 -0.260429 10
30.2802 -4.4057 -0.269796 10
30.6438 -4.24767 -0.284406 10
30.7227 -4.15177 -0.284363 10
30.6711 -3.71498 -0.258425 10
30.768 -3.62043 -0.259657 10
30.817 -4.05763 -0.285403 10
30.8004 -3.94744 -0.278626 10
30.7281 -3.82989 -0.267966 10
30.5292 -4.33761 -0.281895 10
29.6977 -5.00906 0.174155 10
29.5508 -4.87789 0.187896 10
29.4506 -4.75603 0.198905 10
29.71 -5.05523 0.083245 10
29.5672 -4.92449 0.09725 10
29.483 -4.80515 0.10767 10
29.7442 -5.00017 -0.005898 10
29.5698 -4.86408 0.010592 10
29.2872 -4.57562 -0.039935 10
29.2568 -4.4674 -0.032586 10
29.4393 -4.74844 -0.14728 10
29.3544 -4.63005 -0.135973 10
29.3675 -4.52875 -0.131444 10
29.2758 -4.53584 0.393771 10
29.3448 -4.42162 -0.124475 10
29.2411 -4.42711 0.400615 10
29.2258 -4.32184 0.406463 10
29.4055 -4.68219 -0.229361 10
29.3952 -4.57671 -0.223121 10
29.2824 -4.47698 0.309511 10
29.2476 -4.36832 0.316512 10
29.405 -4.64432 0.206754 10
29.355 -4.53232 0.214822 10
28.8025 -4.31692 -0.258765 10
28.4353 -4.45756 -0.242078 10
28.123 -4.80212 -0.240043 10
27.7627 -5.03138 -0.228793 10
27.553 -5.28501 -0.228883 10
27.6623 -5.2088 -0.231878 10
27.7205 -5.12178 -0.230945 10
27.9065 -4.96023 -0.234374 10
27.9874 -4.87637 -0.235145 10
28.1799 -4.71281 -0.238967 10
28.2561 -4.62664 -0.239346 10
28.336 -4.54069 -0.23999 10
28.6328 -4.39013 -0.251481 10
29.2218 -4.40724 0.227564 10
29.4297 -4.69188 0.116184 10
29.3287 -4.57109 0.127517 10
29.2076 -4.44782 0.140002 10
29.5011 -4.74766 0.02033 10
29.4515 -4.63512 0.028815 10
29.3188 -4.50927 0.042486 10
29.1908 -4.25115 -0.017635 10
29.1907 -4.14865 -0.012342 10
29.1942 -4.04681 -0.007298 10
29.2547 -4.30401 -0.112928 10
29.1917 -4.1914 -0.10328 10
29.218 -4.21797 0.411919 10
29.2111 -4.09192 -0.099274 10
29.3361 -4.13359 0.41106 10
29.379 -4.0372 0.413985 10
29.4215 -3.94056 0.41693 10
29.3925 -3.83352 0.423418 10
29.2005 -4.25808 0.324141 10
29.1924 -4.15433 0.329667 10
29.18 -4.0501 0.335408 10
29.2226 -3.95417 0.338236 10
29.2609 -3.85743 0.341292 10
28.9603 -4.24069 -0.265112 10
29.1749 -4.29699 0.235381 10
29.0627 -4.15484 -0.267312 10
29.1512 -4.19082 0.241861 10
29.1845 -4.07133 -0.270933 10
29.1468 -4.08788 0.247235 10
29.243 -3.97767 -0.269851 10
29.1579 -3.98738 0.251734 10
29.1924 -3.89029 0.254925 10
29.1805 -4.34069 0.146835 10
29.1491 -4.23319 0.1539 10
29.1212 -4.12656 0.16073 10
29.1641 -4.03088 0.163372 10
29.1947 -3.9332 0.166731 10
29.2486 -4.39464 0.052179 10
29.2135 -4.28619 0.059643 10
29.1701 -4.17681 0.067598 10
29.1894 -4.07737 0.071628 10
29.1886 -3.97493 0.076892 10
29.2593 -3.85174 -0.001002 10
29.4673 -3.77864 -0.009129 10
29.2302 -3.99236 -0.095255 10
29.2845 -3.89788 -0.093625 10
29.3108 -3.79916 -0.090107 10
29.3644 -3.70413 -0.088434 10
29.4581 -3.73994 0.425223 10
29.4534 -3.61356 -0.08912 10
29.5393 -3.64809 0.426281 10
29.6241 -3.55625 0.427174 10
29.2949 -3.75991 0.344574 10
29.4315 -3.67629 0.342503 10
29.6549 -3.60338 0.33595 10
29.3446 -3.88992 -0.271938 10
29.4025 -3.79539 -0.270799 10
29.2344 -3.79414 0.257693 10
29.5628 -3.71464 -0.27716 10
29.3236 -3.70431 0.257855 10
29.5529 -3.61004 -0.271045 10
29.2171 -3.83423 0.170569 10
29.3143 -3.74564 0.170038 10
29.3796 -3.65212 0.171384 10
29.2033 -3.87484 0.081189 10
29.2255 -3.7758 0.085012 10
29.4688 -3.70709 0.075268 10
29.7087 -3.60504 -0.014054 10
29.6667 -3.49598 -0.006109 10
29.7431 -3.40226 -0.005717 10
29.5697 -3.52606 -0.091626 10
29.6898 -3.4383 -0.094354 10
29.7442 -3.46845 0.426361 10
29.8959 -3.38382 0.42405 10
29.6683 -3.50171 0.340359 10
29.709 -3.4035 0.343345 10
29.6579 -3.64697 0.244521 10
29.5466 -3.50608 -0.265213 10
29.7467 -3.55514 0.244789 10
29.5716 -3.40623 -0.261677 10
29.5538 -3.42685 0.260504 10
29.6794 -3.31649 -0.26415 10
29.6895 -3.34074 0.258204 10
29.6252 -3.37558 0.172616 10
29.4801 -3.50282 0.084984 10
29.6603 -3.31959 0.084412 10
30.1021 -3.36635 0.505915 10
30.1448 -3.24313 -0.020617 10
30.2654 -3.28125 0.503582 10
30.2165 -3.14662 -0.019844 10
30.6037 -3.11091 -0.314688 10
30.6709 -3.01192 -0.314062 10
30.6386 -2.90202 -0.306306 10
